# utm_x utm_y z (meters)
233037.88 4099080.69 0.000000
233928.17 4099052.66 0.000000
234817.78 4099024.74 0.000000
235708.06 4098996.90 0.000000
236598.34 4098969.15 0.000000
237488.62 4098941.49 0.000000
238378.22 4098913.95 0.000000
239268.50 4098886.48 0.000000
240158.77 4098859.10 0.000000
241048.36 4098831.84 0.000000
241938.63 4098804.65 0.000000
242828.90 4098777.56 0.000000
233072.88 4100190.26 10.000000
233963.05 4100162.23 10.000000
234852.54 4100134.31 10.000000
235742.71 4100106.46 10.000000
236632.87 4100078.70 10.000000
237523.04 4100051.04 10.000000
238412.52 4100023.50 10.000000
239302.68 4099996.03 10.000000
240192.83 4099968.65 10.000000
241082.31 4099941.38 10.000000
241972.46 4099914.19 10.000000
242862.61 4099887.10 10.000000
233107.90 4101300.26 20.000000
233997.96 4101272.22 20.000000
234887.33 4101244.30 20.000000
235777.38 4101216.44 20.000000
236667.43 4101188.69 20.000000
237557.47 4101161.02 20.000000
238446.84 4101133.48 20.000000
239336.88 4101106.00 20.000000
240226.92 4101078.62 20.000000
241116.28 4101051.35 20.000000
242006.31 4101024.16 20.000000
242896.34 4100997.06 20.000000
233142.92 4102409.83 30.000000
234032.85 4102381.79 30.000000
234922.11 4102353.86 30.000000
235812.04 4102326.01 30.000000
236701.98 4102298.25 30.000000
237591.90 4102270.58 30.000000
238481.15 4102243.03 30.000000
239371.08 4102215.55 30.000000
240261.00 4102188.17 30.000000
241150.24 4102160.90 30.000000
242040.16 4102133.70 30.000000
242930.07 4102106.60 30.000000
233177.96 4103519.83 40.000000
234067.78 4103491.78 40.000000
234956.91 4103463.85 40.000000
235846.73 4103436.00 40.000000
236736.54 4103408.23 40.000000
237626.36 4103380.57 40.000000
238515.49 4103353.01 40.000000
239405.29 4103325.53 40.000000
240295.10 4103298.14 40.000000
241184.22 4103270.87 40.000000
242074.02 4103243.67 40.000000
242963.82 4103216.57 40.000000
233212.99 4104629.40 50.000000
234102.69 4104601.35 50.000000
234991.71 4104573.42 50.000000
235881.41 4104545.56 50.000000
236771.11 4104517.80 50.000000
237660.80 4104490.13 50.000000
238549.82 4104462.57 50.000000
239439.51 4104435.09 50.000000
240329.19 4104407.70 50.000000
241218.20 4104380.42 50.000000
242107.89 4104353.22 50.000000
242997.57 4104326.11 50.000000
233248.04 4105739.40 60.000000
234137.63 4105711.35 60.000000
235026.53 4105683.42 60.000000
235916.11 4105655.56 60.000000
236805.69 4105627.79 60.000000
237695.27 4105600.11 60.000000
238584.17 4105572.55 60.000000
239473.74 4105545.07 60.000000
240363.31 4105517.68 60.000000
241252.20 4105490.40 60.000000
242141.77 4105463.19 60.000000
243031.33 4105436.08 60.000000
233283.09 4106848.98 70.000000
234172.56 4106820.93 70.000000
235061.35 4106792.99 70.000000
235950.81 4106765.12 70.000000
236840.27 4106737.35 70.000000
237729.73 4106709.68 70.000000
238618.51 4106682.12 70.000000
239507.97 4106654.63 70.000000
240397.42 4106627.23 70.000000
241286.20 4106599.95 70.000000
242175.65 4106572.74 70.000000
243065.09 4106545.63 70.000000
233318.16 4107958.98 80.000000
234207.51 4107930.93 80.000000
235096.18 4107902.99 80.000000
235985.53 4107875.12 80.000000
236874.88 4107847.35 80.000000
237764.22 4107819.67 80.000000
238652.88 4107792.10 80.000000
239542.22 4107764.61 80.000000
240431.56 4107737.21 80.000000
241320.21 4107709.93 80.000000
242209.54 4107682.72 80.000000
243098.87 4107655.60 80.000000
233353.23 4109068.56 90.000000
234242.46 4109040.50 90.000000
235131.01 4109012.56 90.000000
236020.24 4108984.69 90.000000
236909.47 4108956.91 90.000000
237798.70 4108929.23 90.000000
238687.24 4108901.66 90.000000
239576.46 4108874.17 90.000000
240465.68 4108846.77 90.000000
241354.22 4108819.48 90.000000
242243.44 4108792.27 90.000000
243132.65 4108765.15 90.000000
